# .PCD v0.7 - Point Cloud Data file format
VERSION 0.7
FIELDS x y z intensity
SIZE 4 4 4 4
TYPE F F F F
COUNT 1 1 1 1
WIDTH 624
HEIGHT 1
VIEWPOINT 0 0 0 1 0 0 0
POINTS 624
DATA ascii
-15.441912 -3.3048227 0.27564332 2
-15.456711 -3.1953075 0.27550367 2
-15.486549 -3.0888958 0.27564332 2
-16.306404 -0.94022161 -0.28510252 2
-16.269032 -2.5098567 -0.28733641 2
-16.054094 -1.0972748 0.28087902 2
-16.905323 0.059008867 -0.29508528 2
-17.047724 1.0396928 0.29812202 4
-16.8566 1.0841553 0.29484096 4
-15.281183 -3.128974 -0.27227148 2
-16.669163 1.130541 0.29162973 7
-15.340644 -2.9208171 -0.27258334 2
-16.258495 1.4996657 0.28499779 13
-16.413702 1.1994498 0.28726661 6
-16.279972 1.5905409 0.28552139 10
-16.23176 1.2461162 -0.28416011 7
-17.123194 1.0173025 -0.29941347 3
-16.234793 -2.623677 -0.28705719 2
-16.567003 0.28628179 -0.28922129 2
-16.625601 3.4029675 0.29621971 3
-16.471071 -1.4352411 -0.28859299 2
-15.675549 -2.6469893 0.2774933 3.5
-16.211323 1.3556203 0.28395939 11.5
-15.965849 -2.4944773 0.28206578 2
-16.529919 -0.34336764 -0.28859299 2
-10.070257 1.3204117 0.17728156 7
-9.4439697 1.4754446 -0.16684501 7
-9.3623333 1.630101 0.16588263 22.857143
-16.706358 3.5693357 0.29819182 2
-9.3615131 1.6147505 -0.16582277 17.571428
-5.1089687 2.5516493 -0.29929629 23.25
-16.597843 0.17265941 -0.2897332 2
-4.8689761 2.6137908 -0.28962719 23.777779
-16.145834 -1.147832 -0.28254282 2
-16.533081 -0.11542797 -0.28859299 2
-4.6367254 2.8630981 -0.28560784 20.799999
-4.6687207 3.0053246 -0.29098797 6
-10.070334 1.3043308 -0.17724663 3
-4.8674355 2.6141014 0.096441992 26
-4.5207443 3.4588695 -0.29831499 1
-9.8692179 1.3645854 0.1739074 7.6666665
-4.3968353 3.4779422 -0.29381409 3.5
-4.3350759 3.5112689 -0.29237485 6
-9.6131716 1.4313494 0.16964902 9.333333
-9.6529951 1.4217914 -0.17031221 6.6666665
-12.479876 4.2509246 0.23012744 3
-9.4020052 1.4848589 0.1661469 13
-4.1233649 3.572062 -0.28593147 1.7692307
-16.85041 1.0865583 -0.29473627 3.5
-11.699116 4.4674454 0.21859139 12.5
-16.581182 1.1565602 -0.2901288 5
-9.9097319 1.353741 -0.17458224 6.6666665
-11.582901 4.631042 0.21774618 14.142858
-16.417496 1.2027442 -0.28733641 2
-13.098004 4.1373262 -0.23976116 2
-12.024317 4.5940418 -0.22468229 5
-11.997013 4.6316681 -0.22447285 7
-16.224007 1.3586122 -0.28418338 11
-2.9238367 3.9746041 -0.25860506 14.125
-9.4035654 1.7904733 -0.16708934 14.666667
-16.559246 -2.7948427 -0.29313064 2
-9.3950672 1.7871227 0.16693227 24
-16.266661 1.5620129 -0.28524214 11
-16.637257 2.0632842 0.29263031 6
-3.6259339 3.6750925 0.090121053 6
-8.5380182 5.5849948 -0.17808436 1
-3.4110761 3.7200246 0.088103242 7.6999998
-3.2802923 3.7585666 0.08707878 10
-8.3823652 5.6277013 -0.17623441 1
-3.1148837 3.789392 0.085629568 11.692307
-4.6767263 3.012789 -0.09710519 7
-2.8524921 3.8540154 0.12070934 16.777779
-0.90952069 3.6173537 0.12803824 33.344826
-4.6389174 3.4491861 0.10090483 4.1428571
-4.4040637 3.493026 0.098117433 1
-4.1450949 3.5665755 0.095454201 3.0999999
-2.1350765 4.2856207 0.083576083 4
-3.8726554 3.6102107 0.09242259 8.6153851
-5.3354506 2.483427 0.10272487 3
-4.8742809 2.6186318 -0.096585497 15.777778
-4.3682914 3.4794312 0.29268888 4.5
-2.3829684 3.9696562 0.15871389 29.25926
-12.805883 3.8005352 0.23316416 8
-2.1950185 3.9983559 0.07961788 14
-12.683354 3.9066625 0.23165452 7.5
-4.6520805 2.6778884 -0.093697608 16.375
-16.137293 -1.3239298 -0.2826243 2
-11.645012 4.5893087 -0.21848087 11.666667
-15.893414 -2.5428655 0.28094885 2
-5.3139353 2.5197973 -0.10265505 15
-16.413885 -0.42835382 -0.28660345 2
-5.1328402 2.55444 -0.10007986 14.555555
-12.779049 3.8898807 -0.23316415 1
-1.5484685 3.4612854 -0.13246487 28.8125
-1.4351254 3.4858942 -0.12442131 30.833334
-1.3189012 3.5187201 -0.13795039 32.75
-2.6261911 3.9338908 -0.082570821 17.266666
-12.731741 3.9484618 -0.23267549 7
-3.1273935 3.8057878 -0.085990496 7.0714288
-2.8718586 3.8638246 -0.084040821 11.928572
-1.3094122 3.5156667 0.13834934 33.666668
-1.1254947 3.5620732 0.13052779 34.799999
-2.4099922 3.9823089 -0.081254914 17.9
-3.3154805 3.7676747 -0.087604098 4.5999999
-8.1736746 5.6939259 -0.17387833 1
-3.4129105 3.7408409 -0.088390619 4.8333335
-7.9177694 5.6984801 -0.17027964 1.4
-4.6122031 3.4677403 -0.10072531 0.85714287
-8.1059828 5.6451354 0.1724228 4
-4.6370535 2.8649461 -0.095147029 13.5
3.0974874 12.99182 0.23312925 12
3.142339 12.978989 0.23309435 16
-4.30581 3.5154173 -0.097026646 2.25
3.1904924 12.979591 0.23330377 18
-1.6542819 7.6643062 0.13686177 2
3.2401342 12.985837 0.23361792 20
3.2885787 12.996346 0.23400187 18
-5.1153016 2.5557559 0.099816121 25.333334
3.0560081 13.112487 -0.23501413 6.6666665
-4.6422925 2.8785205 0.095349476 23.4
3.3912728 13.018905 -0.23483086 15.25
3.6272728 13.078896 -0.23691292 16
-2.6188521 3.908088 0.16426323 24.266666
3.1666334 12.970283 -0.2330478 14.333333
3.2647491 12.987919 -0.23375754 15
3.8118539 13.120387 -0.23848714 16
-1.1251887 3.559087 -0.13044317 31.85
-3.6158979 3.7042029 -0.090363197 4.4615383
-1.4309779 3.4836009 0.12841322 32.285713
3.8997686 8.9432316 0.17030059 2
-4.6554608 2.6788826 0.093758196 28.111111
3.9116237 8.8856382 0.16946286 2
-2.0844893 4.3938823 -0.08488851 3
3.0407133 13.161197 0.23578201 8
3.9458821 8.8398151 0.16897421 2
3.9539852 8.6562119 0.16611201 2.6666667
4.0713344 8.6325665 0.16660066 3
4.1224999 8.5506487 0.16569315 2
3.8123195 13.127501 0.2386093 12.666667
3.4174986 13.033235 0.23518863 18.5
3.8483613 9.4012108 0.17731644 1
3.6251996 13.078185 0.23689024 16.5
3.8266346 9.3443661 -0.17625535 1
3.8520737 9.0475311 0.17164442 2
-4.1302714 3.579896 -0.095413655 1.3076923
4.366363 8.3604822 -0.16464019 13.833333
4.1638412 8.5238991 0.16558844 4
4.3694429 8.4119434 0.16546378 4.2857141
4.6102023 8.3749723 -0.16687293 1
4.5821495 8.3607206 0.16641916 5.1999998
4.2101855 8.4609184 0.16496015 4
4.781189 8.4403839 -0.16932324 1
4.9311142 8.7085905 0.17468695 5.6666665
-2.1424677 4.0412078 0.17535529 20.280001
-16.239237 -0.85106379 -0.28384593 2
3.7243891 9.4188271 -0.17679287 1
3.8141191 9.5553322 0.17958528 1
5.003602 5.9167714 0.13525616 2
5.0190372 5.8931808 0.13511653 2
5.0265579 5.8604479 0.13476749 2
5.0391426 5.8337855 0.13455805 2
5.0453372 5.8019538 0.13420901 2
-16.25486 1.4735852 -0.2848931 10
5.0677109 5.7664433 0.13399959 2
-12.584602 4.0937366 0.23100005 6.5
-3.8566637 3.634284 -0.092504099 4.818182
5.1470995 7.5312142 -0.15922877 14.4
5.0588069 7.49999 -0.15790938 13
-0.9117474 3.610971 -0.13004439 29.892857
-16.909096 2.0372653 -0.29728431 3
5.0377054 7.4997301 0.15769994 18
4.841115 6.7920084 0.14558797 2
4.8407941 6.3860822 -0.13987854 1
4.873167 6.3847351 0.140201 2
4.8545132 6.6415877 0.14359839 2
-2.5214038 4.0272837 -0.24901451 7.5
6.6387634 5.6650386 0.15233625 2
4.0484719 8.5809565 -0.16561635 1
7.1249518 5.8474216 -0.16088791 1
4.9183669 6.1330066 0.13722828 2
-1.6405176 7.4124641 0.13251612 8
4.4208751 7.5742745 -0.15308379 11.25
4.4438124 7.6008329 0.1536859 22
5.6170964 5.411171 -0.13614273 1
4.9732108 5.9648795 0.13555865 2
5.3634882 5.4043927 -0.13290881 1
5.1355281 5.6464972 0.13323167 2
5.1777229 5.4414005 0.13110945 2
-1.9524975 4.0835257 -0.1739357 36.400002
5.9975352 8.6068649 0.18311065 5
5.7864656 4.2708492 0.12553516 5
5.8268924 4.1013203 0.12437748 82.666664
-4.4147768 3.4903762 -0.098236106 3.4000001
6.0799646 8.6284428 0.18424506 5
3.8679585 8.8240089 -0.16817139 1
6.0195675 3.3118191 0.11992595 1
7.1136794 5.8201613 0.16043416 2
6.9201484 5.7614789 0.15717638 2
-8.3665438 5.595036 0.17568755 1
6.0008912 5.4891825 0.14195788 4
6.352561 2.8113251 0.12125932 16.5
4.883317 7.4637632 -0.15568943 15.8
4.8861685 7.4700475 0.15580927 19
5.606523 5.4026771 0.13590771 2
8.2874641 6.1840415 0.1804928 1
9.0123672 3.6046922 -0.16942796 1
5.1605277 7.5414062 0.15950626 19
-4.5932083 3.5411375 0.10123559 7
-4.6519136 2.6760731 -0.28126651 24.375
-2.1413925 4.0817618 -0.14951138 5.1428571
7.3742661 5.9274192 -0.16514631 1
7.3320675 5.8745689 0.16399445 2
5.9716353 3.642195 -0.12209704 1
8.1208248 6.1461277 -0.17777021 1
-1.9475794 4.0652347 0.17048901 20.083334
7.8928981 6.0810375 -0.17391904 1
7.5886688 5.9543309 0.16836919 2
7.5369411 5.9758472 -0.16789216 1
6.0427232 5.4877977 -0.14248145 3
10.572346 4.0811086 -0.19781432 15.25
5.8574948 5.4504223 -0.13966113 1.4
10.579632 4.0961962 0.19803247 22.5
-8.5369949 5.5609527 0.17784002 1
7.0847001 3.0028996 -0.13431372 1
10.609721 3.9492295 -0.19760777 14.666667
10.604212 3.9478872 0.19750889 31.5
6.117691 5.5191703 0.14381947 2
6.1809702 5.5360484 -0.14483753 3.5
9.5421143 3.7606633 0.17902678 1
5.9022985 3.6293821 0.12095153 1
5.8737659 5.4676285 0.14007302 2
9.287406 3.6977892 0.17448916 1
5.5131178 5.5188956 0.13616368 2
10.881307 2.8711867 0.1964393 27.714285
6.8117924 1.3985835 -0.12138149 1.75
-1.5527115 3.4613252 0.13696527 27.866667
5.8381205 3.8746114 0.12231035 1.5555556
3.9035292 9.1212339 -0.17318024 1
10.827594 3.0966268 -0.19657518 23.5
10.822009 3.1174815 0.19658391 26.833334
6.0774608 3.1285837 0.11932052 1.1818181
6.2091346 2.8901908 0.11954898 108.5
-16.796963 1.9642737 0.29519001 4
10.875676 2.8879912 -0.19641936 22
6.2511058 1.8706653 -0.11389441 2
6.5583835 1.1231583 -0.11615053 3.090909
6.5209594 1.2463011 0.11588398 7
6.0137553 3.5254202 -0.12167817 1
6.4593153 1.1008415 0.1143792 50.666668
3.9215209 8.7002859 -0.16657972 1
4.8887153 6.1157618 -0.1366698 1
-11.535517 4.7994094 0.21808527 5
-16.921206 1.951866 -0.2973192 3
11.733714 -0.44666201 -0.20496106 1
7.3057833 -0.036959011 -0.12752473 1.5
7.1148963 -0.159583 -0.12422623 1.875
6.7886291 -0.17484131 0.11853675 34.799999
7.8903146 6.0592518 0.17365146 1.6666666
6.6910658 -0.056150071 0.11679848 12.2
8.9696007 3.6754982 -0.16920108 3.75
6.8321562 0.80713874 -0.12008651 3.5999999
6.3307638 2.9056346 -0.12159092 2.125
6.7993522 0.61995339 -0.11918248 1
4.4856906 7.4341702 0.1515567 20.666666
10.112885 -0.4543598 -0.1766998 2.6666667
5.9210896 3.8695331 -0.12347229 1
6.6686883 0.63623494 -0.11693113 1
6.6873364 0.93188608 -0.1178586 4
4.4758587 7.4727697 -0.15204537 17.5
10.529785 4.3165407 0.1986433 1
10.48548 4.2982736 0.19780558 3
5.9767952 3.4375379 0.1203518 1
6.512589 0.53238183 0.1140573 111.66666
6.5437632 0.3843109 0.11442496 105.5
-2.278662 4.0046277 0.18772256 34.333332
5.1147089 5.6211562 -0.13266368 2
6.3642063 5.6022167 -0.14799641 5.6666665
-8.1276083 5.8267198 0.17455895 4.6666665
9.1445026 -0.66419685 0.16003856 2
8.596591 -0.78821111 0.15068407 2
6.9183846 -0.25126746 0.12084046 5
-5.2919216 2.5195332 0.10230601 24
10.963339 2.4706984 -0.19616506 6
6.7980537 5.7204394 0.15508209 2
7.7828979 -1.0149133 -0.1370014 1
6.9344554 2.9678164 -0.13166095 1
7.3963037 -1.1209881 0.13057891 4
6.7175026 2.8902354 0.12764689 2
7.1156192 -1.1804644 0.12590165 2
6.5311031 2.8492439 -0.12437748 1.6666666
6.1307082 1.8474699 0.11176521 7
7.0167747 -1.265069 -0.12445311 1
6.4227343 5.6354823 0.14914826 5.5999999
9.3384829 2.0531907 -0.16689737 1
9.2242632 -3.7156119 0.17358163 2
7.8412118 -3.2879772 0.14841525 16
7.8661718 -3.2830491 -0.14878526 14.2
7.6735802 6.0189219 -0.17023078 1
6.6739402 -2.1144247 0.12220563 7.5555553
12.272288 -6.8045068 -0.24493872 2
8.3630819 6.2152314 -0.18187733 1
6.6103258 1.3345363 0.11771299 5.8000002
6.8160415 0.36829028 -0.11915456 1.3
12.213913 -6.9384727 -0.24519467 2
8.8980303 -0.72196096 0.15582672 2
5.8188682 2.0639203 0.10777111 52.57143
6.7263589 -2.3114507 0.12414944 6
12.161654 -7.0470405 -0.24534595 2
6.8865662 0.19285756 -0.12025406 1
6.7809057 -2.4497428 0.12584931 4
10.100319 -0.45241392 0.17647874 5
9.9520721 -0.49718475 0.17393069 2
5.8585787 1.886308 0.10743701 56.5
7.3705473 1.5935714 0.13162605 4
6.8690467 -2.6172071 0.1283101 2.3333333
6.7467422 0.46822804 -0.11804808 3
9.3961468 -0.73114836 -0.16450638 2
10.944642 2.6252253 0.19646174 31.666666
9.6792517 -0.67104059 -0.16935815 3.3333333
8.8740578 -0.78408182 -0.15550095 3
6.4331012 0.86355454 0.11330419 31.90909
4.6088781 7.4011788 -0.15219371 17.125
9.6275988 -0.54755551 0.16832264 2
6.969089 -2.7522249 0.13078834 2
5.0140309 5.7629128 -0.13333638 1
7.9146547 -0.97737145 -0.13920039 1
8.0897579 -0.92726439 -0.1421324 1
4.9585037 5.8824453 -0.13429378 1
9.0826902 -6.3242936 0.19318652 1
7.5877748 -1.0694664 -0.13375524 1.75
9.2147455 -6.5582657 0.19742163 1
6.7174749 -1.4513438 0.11996086 5
7.1280074 0.11303549 -0.12443566 2
5.3595481 5.4081173 0.1329059 2
6.6545382 -1.6213564 0.11955947 20.4
8.0811434 -5.4631209 0.17026567 2
6.6579819 -1.8699754 0.1207183 3.4000001
6.1055207 8.6613646 -0.18497224 3.3333333
8.1182165 -5.5295701 0.17145245 2
6.6140118 0.11562816 0.11547288 36
7.1302147 3.0235929 0.13518634 5
8.1177216 6.1236978 0.17749096 1
8.2835293 -5.6846008 0.17536178 1
8.9457092 3.7567577 -0.16935815 3
4.6269259 7.4036198 0.15239441 20
6.6089959 5.6772118 -0.15208027 1.75
4.8172278 6.6371384 -0.14315161 1
5.8785262 4.1071734 -0.12517738 1
9.3563805 -0.61479175 0.16366866 2
11.340143 -9.9275761 -0.26307756 2
5.216948 5.4624734 -0.13184711 2
7.9522715 -3.2339337 0.14984636 4
7.8863754 -0.97234344 0.1387001 4
7.3342271 -1.1260906 -0.12952012 3.6666667
7.3868318 -3.4036818 -0.14196952 14.666667
11.249301 -10.093419 -0.26381058 2
7.6248417 -3.337414 0.14528546 18.333334
6.6488714 -1.8809134 -0.12061708 1
7.1332569 1.5175223 0.12729785 4
8.5715952 1.8861568 0.15319723 4
8.6285124 -7.9287663 0.2045422 1
4.1646008 8.4074659 -0.16377339 5.5
12.945276 -5.240747 -0.2437752 2
7.4157052 0.040362127 -0.12944451 4.75
6.8351393 -1.3544915 0.12162932 1.2
9.1032362 -0.75642061 -0.1594452 1
10.704415 -11.57997 -0.27525935 2
7.6671839 -1.0390065 0.13505545 5.5
10.68286 -11.637891 -0.27574804 2
10.658337 -11.692843 -0.27616689 2
10.62518 -11.825336 -0.27749327 2
10.589162 -11.868322 -0.27763289 2
8.669302 -0.82702923 -0.15201047 3
7.229178 -3.4527886 0.13984032 26.666666
10.571546 -12.012179 -0.27930832 2
10.534816 -12.055032 -0.27944794 2
10.529366 -12.134021 -0.28042528 2
8.3667803 -0.87125021 -0.14683291 2.3333333
5.8669186 1.8880752 -0.10758615 29.272728
8.6949463 -5.4711685 -0.17931765 1
10.322174 -12.362872 -0.28112334 2
10.220333 -12.684339 -0.2843346 2
9.2827663 -6.2778101 -0.19560657 1
11.670142 -8.8704042 -0.25586972 2
6.1983953 3.1222267 -0.12115144 1.8181819
7.8060017 -4.6142325 0.1582817 2
10.19195 -12.202358 0.27751651 2
9.9884996 -12.220958 0.2755037 4
9.124403 -6.3318663 -0.19386134 1
11.612993 -9.280508 -0.25948238 2
8.8601484 -6.5633469 -0.19246514 1
10.289407 -12.547387 -0.28324091 2
6.8831677 5.7693229 -0.15676916 1
-2.3612843 4.0394368 -0.20269571 7.1052632
6.7778373 -2.4096787 -0.12556426 1
7.2599297 -3.7007368 0.14223713 19
10.156534 -12.874456 -0.28623691 2
10.048395 -13.062279 -0.28766224 2
8.3889332 -6.84551 0.18899961 1.5714285
9.4139719 -6.6506739 0.20119135 3
6.4830251 0.64218861 0.11371988 55
10.625273 -12.133704 0.28152478 2
8.1014605 -0.91283727 0.14230692 2.6666667
9.1172218 2.0396149 0.1630753 6
10.395102 -12.189651 0.27963409 2
9.3692484 -7.9205756 -0.21415265 1
9.2713985 -8.0311375 -0.21410613 1
7.6266699 -3.3396649 -0.14532968 14.2
8.8152313 -6.4121041 0.19027312 1.4
10.590104 -11.953109 -0.27874985 2
8.8884449 -8.9423466 0.22008184 13.8
9.1349363 -8.8756113 0.22232273 13.8
10.371682 -12.163994 -0.27902907 2
8.6286802 -6.5085115 0.18866052 4
8.6426811 -5.587132 -0.17963763 1
8.7169151 -8.9856911 0.2185216 15
10.182622 -9.4556446 0.24255356 2
8.6508608 -9.0718346 0.21880662 9.666667
8.6922703 -9.2758045 0.2218899 5
7.0379372 -2.8064287 0.13225435 2
7.8287511 -4.9249454 0.16144349 104.75
8.6906109 -8.9930649 -0.2182947 11.5
7.2883115 -3.7811298 -0.14331917 3
5.8247266 2.0537426 -0.10780702 30.799999
11.852803 -7.8690324 -0.24833612 2
10.15813 -9.5024853 -0.24279788 2
7.2814212 1.5610011 -0.12998553 1
6.6911907 -2.1334951 -0.12259346 1
6.7287369 -2.2874081 -0.12405171 1
9.7063618 -12.613142 0.27780741 2
9.8175268 -13.374938 -0.28960526 2
9.7316494 -12.830374 0.28108847 2
6.641531 1.291621 -0.11810043 3
8.4440317 -7.6005359 0.19830589 69
7.2813416 -3.7597902 0.14303991 16
8.8648033 -8.9522781 -0.21991429 8.8000002
10.618092 -11.734796 -0.27623668 2
6.3494062 -15.512289 -0.29257214 25
6.2832046 -15.504705 -0.29201365 14
7.8283348 -4.374887 0.15653937 2.25
6.8674045 -2.6181722 -0.12829015 1
7.0726995 -2.8217962 -0.13291752 1
9.5880089 -13.942878 -0.29536453 2
10.795146 -12.080958 0.2827988 2
9.8029928 -0.5591625 -0.17139137 3
8.3571062 -0.85457307 0.14663512 2
8.8753901 -6.4112344 -0.19111548 1
8.570507 -6.4653459 0.18739231 5.6666665
7.0980201 -1.190828 -0.1256294 1.4
6.3784156 -15.498224 0.29253724 11
6.2859159 -15.50358 0.29201365 17.5
6.8086424 -1.3863286 -0.12129104 1
6.1158743 -15.549847 0.2916646 15.5
5.9206748 -15.608171 0.29138538 15.333333
8.4685926 -6.6213164 0.18764129 2.2
11.645599 -9.1085377 -0.25806874 2
6.2482705 2.9856296 -0.12087537 5
-0.93294758 -2.7676988 -0.11899561 40.277779
-0.93741399 -2.7602737 0.093827374 29.894737
6.11727 -15.561249 -0.2918601 17
-1.1056963 -2.8074818 -0.10548606 38.083332
-1.1117004 -2.8066654 0.1054415 31.027779
6.6916533 -1.6312906 -0.12023122 1
-1.4192796 -3.1027153 -0.11923341 22.045454
-1.4140408 -3.0966525 0.11626215 20.043478
-1.6274376 -3.1553628 -0.12407934 21
-1.6225016 -3.1514616 0.12577266 19.709677
-1.8707573 -3.2163379 -0.12996472 19.961538
-1.865206 -3.2136364 0.1322327 20.703703
10.349091 -9.4474258 -0.24459548 2
-4.3374815 3.5144806 0.097448431 1.3333334
9.1115665 -8.8870058 -0.22216913 7
7.0374002 -0.27896056 0.12293475 4
11.291508 -10.025075 -0.26356626 2
9.9294291 -13.188004 -0.28815088 2
9.5292358 -14.021843 -0.29592302 2
10.945311 2.6239676 -0.19646922 26
-1.9814622 -3.2531271 -0.13319105 17.5
9.0929747 -5.3767228 -0.18439049 1
9.4798975 -14.161168 -0.2974588 2.6666667
7.2667184 -3.6841612 -0.14221385 16.333334
9.2629805 -13.233822 -0.28196108 18
-2.1428719 -3.2813842 -0.1369178 22.666666
9.8492002 -10.763592 0.25466552 2
-5.8135376 -4.0179844 -0.12335361 12
-5.9187183 -4.044981 -0.12513375 12.5
9.3203001 -8.8393698 -0.22421688 6.3333335
9.3386517 -8.8238611 0.22426343 11.666667
-4.8563757 -3.8643916 -0.10833874 24.666666
-4.8649011 -3.8582146 0.10838816 45.916668
-6.100544 -4.091455 -0.12821703 13
-4.7843137 -4.1271749 -0.11029603 28.636364
8.6545382 -9.1106653 -0.21934186 7.6666665
-1.6454982 7.5659509 -0.13515143 1
-5.7235804 -4.0002537 0.1218876 18
9.4094667 -14.374062 -0.2998789 3
-5.7486038 -4.0028296 -0.12227156 12
-3.1132102 -3.3170004 0.15895267 36.666668
-5.8895984 -4.0414176 0.12468 18.5
-3.3440273 -3.3730071 0.14637093 37.076923
-6.7488279 -4.259841 -0.13930511 12
-6.7051687 -4.250308 0.13857211 18
-6.8787074 -4.2935948 0.14153902 17.333334
-6.9149766 -4.2984042 -0.14212076 13.666667
-7.1515718 -4.3616467 0.14621626 16.666666
-7.1480036 -4.3579369 -0.146129 13.5
-7.6482639 -4.4817228 -0.15473303 11
9.8515348 -13.318492 0.28916311 2
-3.536504 -3.4222317 0.085900746 30.666666
-6.1396432 -4.1037445 0.12890346 17.333334
7.2297153 -3.5926349 -0.14091946 16.25
5.9219742 4.3074856 -0.12782143 1
7.2267489 -3.4686651 -0.13992177 19.666666
-2.3421361 -3.1438262 0.13484974 34.18182
9.6953964 -13.602715 -0.29157734 2
8.9288788 -5.4452629 -0.18255217 1.4
8.6934137 -9.2802391 -0.22195971 5
6.3974051 -15.475249 -0.29229292 2
-2.1388323 -3.2804673 0.13448289 26.172413
-14.473592 -6.776845 -0.27895927 2
-1.9870138 -3.2501469 0.066493668 21
-4.7203193 -4.3820071 0.11242841 48
-4.7531919 -4.2603064 0.11141616 54
-14.450216 -6.6128459 -0.27738854 2
-2.2055874 -3.2342932 0.15929671 34.833332
-7.400403 -4.4254436 0.15050957 16
7.380496 -3.3996959 0.14183919 18.799999
-9.5965843 -4.7241879 0.18670586 1
8.4025021 -7.4313679 0.19579856 88
-5.1256022 -3.8383217 0.11177394 19.5
-14.496293 -6.4526758 -0.27696967 2
7.2304831 -3.576508 0.14080602 24
5.9187932 -15.609998 -0.29140282 17
-14.530555 -6.3201008 -0.27658573 2
-14.588606 -6.1385131 -0.27627158 2
-5.3702517 -3.9067218 0.11591888 18
-0.3733477 -2.6244767 -0.13918416 42.871796
-8.5934505 -4.720242 -0.17113829 9.5
-0.62174439 -2.6823153 0.14580701 38.549297
-14.613995 -5.9995971 -0.27574804 2
6.0838146 3.3733313 -0.12143385 1
-2.6283858 -3.1923051 -0.14099847 30.476191
-0.81339258 -2.7313268 0.13693245 33.90625
7.8800015 -5.1121449 0.16395663 99.75
8.3738613 -7.102417 0.19166233 1
-14.78676 -5.0136766 -0.27253678 15
-9.4175529 -4.9201779 -0.18546674 4.5
-9.162693 -4.8676562 -0.18110362 10
-9.5586758 -4.7241931 -0.18611246 35
-8.865469 -4.7893963 -0.17588535 9
11.656385 -8.701066 -0.25389761 2
-1.2797945 -2.9631042 -0.2823846 24
-8.3420391 -4.6582642 -0.1667752 12
-8.0962811 -4.5954647 -0.16249937 13
-7.8651934 -4.5362935 -0.15848531 9.5
-7.3920765 -4.4185433 -0.15032341 13
-6.6152277 -4.2240162 -0.1370014 14.5
-6.3744469 -4.1645799 -0.13290881 14.25
-4.7328768 -4.3618879 -0.11234988 29.5
-5.6150479 -3.9656889 -0.11999112 12.666667
-5.3892846 -3.90518 -0.11617195 11.25
-5.1195197 -3.8322163 -0.1116256 11.2
10.188308 -9.4642467 -0.24272807 2
-3.5512886 -3.4241941 -0.086110175 16
-3.3464267 -3.3738651 -0.12412553 26.416666
-3.1168778 -3.3159885 -0.16389237 29.235294
-2.9318535 -3.2702217 -0.16868778 30.6
-2.8106554 -3.2379043 -0.14132401 30.777779
-2.3453095 -3.1436253 -0.1330322 29.735294
-2.2463994 -3.223218 -0.17140727 32.75
-9.3588352 -4.6679921 0.18255217 1
9.6225853 -7.8541393 -0.21681124 1
-9.1075401 -4.6025457 0.17811926 1
-8.9595823 -4.5671062 0.1755363 1
-8.5982294 -4.6085424 0.17028563 13.714286
-1.2731042 -2.9440839 -0.11197545 23
-8.4140053 -4.6811209 0.16806667 13
-8.1609287 -4.6152287 0.16365121 15
-8.6424532 -4.4798241 0.16991663 6
-7.8746972 -4.5431175 0.15868892 16
-0.81819499 -2.73101 -0.11947243 37.566666
-0.62462097 -2.6857393 -0.14473175 39.361111
-7.6017332 -4.474082 0.15396513 16
-14.599258 -6.2060409 0.2768999 2
-15.031059 -5.8090501 0.28128043 5.5
-0.12179267 -2.563849 -0.13479407 44.333332
-14.979053 -5.8792801 0.28087902 2
0.071615964 -2.5152194 -0.14230773 45.930233
-15.126932 -5.723506 0.28231013 2
0.18396342 -2.4815977 -0.1184093 43.581394
0.37557304 -2.4357202 -0.12944534 41.799999
-6.5793209 -4.218914 0.13642547 17
0.61005169 -2.3775184 -0.13002919 42.341774
-6.3774352 -4.1682816 0.13298734 18
-14.797926 -5.0491538 0.27292073 4
-14.822844 -4.8849578 0.27242509 18.4
-5.5810204 -3.9572296 0.11942101 16.666666
-4.7869382 -4.1163282 0.11020719 52
-14.850875 -4.7223878 0.27201322 19
12.390647 -6.6215339 -0.24522959 2
-2.92573 -3.2667062 0.14480564 34.555557
-14.586056 -6.8947973 -0.28161204 2
-2.8044815 -3.2374814 0.14978322 34.5
-2.6177204 -3.189548 0.14764784 36.095238
9.8395023 -13.109752 0.28611475 2
-14.760818 -5.9997535 -0.27812156 2
-15.158558 -5.6449432 -0.28234503 2
9.8200302 -12.355805 0.27549204 37.666668
10.102267 -12.272475 0.27745837 2
-0.37386629 -2.6198089 0.13645208 40.636364
-0.12559175 -2.5567636 0.13537736 41.771084
-14.817959 -4.8805208 -0.27231863 17.25
0.051646657 -2.5137835 0.12944305 39.805557
-14.864067 -4.7237158 -0.2722401 12
0.17424032 -2.480561 0.13219394 38.980392
0.37232018 -2.4308898 0.12904324 38.733334
-15.582635 -4.07055 -0.28112337 18
0.61052132 -2.3707449 0.12950411 38.060974
-15.419427 -3.6279016 -0.2764985 2
-15.526313 -3.3399353 -0.27721405 2
-15.458427 -3.4194458 -0.27635303 2
-15.563515 -3.1211314 -0.2770744 2
-15.626477 -2.9085233 -0.27744672 2
7.8770123 -4.1899972 0.15573655 2.5
