# .PCD v0.7 - Point Cloud Data file format
VERSION 0.7
FIELDS x y z intensity
SIZE 4 4 4 4
TYPE F F F F
COUNT 1 1 1 1
WIDTH 636
HEIGHT 1
VIEWPOINT 0 0 0 1 0 0 0
POINTS 636
DATA ascii
-15.975039 -2.6017153 -0.28251955 2
-16.372637 -1.4585075 -0.28691757 2
-16.498552 1.1045114 0.28862789 4
-16.661961 1.0570381 0.29142028 4
-16.391214 1.1864328 -0.28685942 10.666667
-16.380825 1.1828121 0.28667322 11
-16.421362 1.3574178 0.28761566 14.75
-16.914654 1.903147 -0.29710978 2.5
-16.456945 1.5034931 0.28845337 6
-15.85707 -0.86161268 -0.27719659 2
-15.901639 -0.5025059 -0.27770269 122
-15.932289 -0.36425662 -0.27817392 120.5
-9.5474977 1.6144098 -0.16902073 15.833333
-15.936169 -1.0319681 -0.27874982 2
-16.960554 0.98981839 -0.29655129 2
-17.13163 0.93980956 -0.2994833 3
-16.765392 1.037163 -0.29320043 2
-16.03315 -0.11473209 -0.27986681 15
-10.179888 1.2173973 -0.17895697 5
-10.044401 1.2546569 -0.17668816 6
-9.8717299 1.3011881 -0.17380269 7.3333335
-9.5619602 1.4122728 -0.16871822 12.666667
-12.662452 3.4687834 -0.22916755 4
-13.006186 3.5117724 0.23515373 6
-12.898723 3.5335302 0.23344338 8
-11.488031 4.4397769 0.21497875 22
-12.634334 3.6226635 0.22942352 9
-12.619677 3.8089523 0.23009253 5
-16.858429 3.1814013 -0.29946005 3
-5.1579599 2.480428 0.29995486 31.333334
-5.1562619 2.4777677 0.099856846 24.666666
-10.182067 1.215795 0.17899187 5
-5.0441618 2.5099607 0.098344311 25
-9.9064436 1.2876213 0.17437281 7.3333335
-16.849014 1.0128216 0.29463151 4
-9.5804176 1.396668 0.16899745 16
-15.973971 -0.22584197 -0.27885455 123
-11.628664 4.241684 0.21606079 7
-3.6225052 3.6083794 0.089254521 6
-3.3757923 3.6685941 0.087028451 9.0769234
-12.782194 3.6676486 -0.232117 1
-16.594051 1.0847183 -0.29026842 5
-4.1580205 3.4800026 0.28417122 5.75
-11.567175 4.3327894 0.21560703 20.25
-11.565636 4.6060638 0.21729991 10
-3.0123458 3.7566619 0.084050797 13
-4.22967 3.4619319 -0.28645217 1.3333334
-4.1193848 3.5820389 -0.28612071 2.0999999
-5.5025215 2.3948479 -0.10474934 12
-4.2838058 3.4337769 0.095831163 5.5
-3.8708737 3.6320415 -0.27819702 2
-5.3764486 2.4258647 -0.10295922 13.571428
-4.1541867 3.4953671 -0.094766572 2
-3.8751795 3.54935 0.091732763 5
-1.7689148 3.3652313 -0.14620952 28.200001
-3.4025681 3.7224517 -0.26431757 4.9000001
-5.1752524 2.4767029 -0.10014772 14.833333
-3.371434 3.6904557 -0.087259546 7
-1.6240026 3.3893158 -0.1313481 30.842106
-3.0825272 3.7674172 -0.084971406 8.375
-4.8425136 3.3354414 0.1026376 1
-1.2068253 3.4860168 -0.10317944 30.200001
-4.713974 3.392724 0.10138103 5.5
-1.9221181 7.0867901 -0.12817048 1
-4.047894 3.5075395 0.093492545 6
-3.6323776 3.6811049 -0.27104792 2.5833333
-4.8378739 2.8172429 0.097721845 26.833334
-1.0992788 3.524514 -0.13771771 29.566668
-3.1244574 3.7860951 -0.25728357 10.384615
-16.77919 -1.5801909 -0.29417777 2
-9.5625687 1.615136 0.16928336 19.428572
-3.6246548 3.6241548 -0.089475572 5.3333335
-8.6294584 5.4535484 -0.17818908 3
-8.4702425 5.498538 -0.17626931 3
-4.6413188 3.3771486 -0.10019427 1.375
-2.4412322 4.134481 -0.25163129 5
-12.70226 3.6602213 -0.23074408 8.333333
-11.592474 4.3902707 -0.21637495 8.1999998
-3.2777836 3.7542584 -0.26119134 7.3333335
-8.8056479 5.3517299 0.17986451 5
-8.3608761 5.5497789 -0.17516632 1
-1.8727807 7.6303377 0.137141 4
-4.8405614 2.5992448 -0.095913768 16.133333
-11.543934 4.1446381 -0.21409447 10.333333
-11.48158 4.2130246 -0.21347784 9
-1.7743124 3.3632751 0.14619556 18
-1.0959574 3.524616 0.13353865 31.821428
-2.2121353 4.0624027 -0.24242018 1
-2.1946378 3.9621725 -0.15117007 2
-1.3741114 3.4479451 -0.12979147 31.450001
-4.8337684 2.8269241 -0.097745113 13.833333
-2.8591595 3.8276534 -0.11279856 10
-4.7501078 3.5316007 0.10331824 7
-2.8982468 3.8415673 -0.25221571 11.416667
-1.8506627 7.3198261 0.13178894 10
-2.6250732 3.8928509 -0.16145134 12.103448
-4.6607432 3.5922041 0.10271712 7.3333335
-4.0800915 3.516129 -0.094019607 5.1999998
-2.3899901 3.9355376 -0.16095573 5.9545455
2.9089782 12.905605 0.23092152 13.5
-1.8851894 7.4066873 -0.13340619 1
-4.1694784 3.4625354 0.094605133 6
-3.1375237 3.723197 0.084993221 11.666667
-8.3070383 5.5139227 0.1740354 5.5
-8.4013567 5.471128 0.1750011 5
2.8135421 13.102563 -0.23392044 5.6666665
-11.474738 4.5015211 0.21515328 16
-1.8744549 7.5866446 -0.13640802 1
-17.123787 0.93623364 0.29934368 4.5
3.1295905 12.937472 0.23234038 16.6
3.4365151 13.006602 -0.23482212 13
3.5679636 13.041972 -0.23601472 9.666667
3.3084919 12.979539 -0.23380406 14.333333
-2.4081514 4.0753064 -0.1377183 4.6666665
-8.2216864 5.5372415 0.17302316 5
-3.8736048 3.561414 -0.091854908 3.75
-1.869827 7.1835046 0.12956667 14
-16.416798 1.3880007 -0.28758076 12
3.5519638 9.6643715 0.17972489 1
-4.3787932 3.4364281 -0.097166941 1
3.5046527 9.0495939 0.16939306 2
4.0221682 9.8659821 -0.18597284 1
2.808784 13.091007 0.23370518 8
4.3239498 8.3560944 -0.16422714 1
4.3500428 8.2996845 -0.16356395 1
3.5392711 8.8622303 0.16657275 5.5999999
5.9485354 15.117206 -0.28356668 2
3.4373338 13.015656 0.2349792 16
3.1055055 12.930521 -0.232124 15
4.1558065 8.6106253 -0.16689153 1.6666666
3.3070221 12.983389 0.23386225 17
4.1208501 8.3085136 0.16188852 11.428572
4.0620742 9.3064985 -0.17724663 1
4.1913104 8.4211893 -0.16419223 3
4.3803034 8.2899752 0.16366285 4
4.4173284 8.2866945 -0.16391301 1
4.5736237 8.3674526 -0.16644943 1
4.5541821 8.3355665 0.16579786 3
-5.0417118 2.5096154 -0.098303594 14.666667
3.4901152 9.1494284 0.17092887 2
7.0980692 10.354833 -0.21913242 1
-5.5095582 2.3961961 0.10487151 17.5
-8.8391829 5.3953385 -0.18076038 3
3.4932632 9.3534298 0.17427973 1.5
5.0304728 7.4804978 0.1573509 18
5.0317783 7.4796038 -0.1573509 13.5
-3.1786165 3.7363281 -0.085628487 7.4000001
5.2222042 7.026577 -0.15281327 1
5.2277093 6.9324851 -0.15155669 1
4.2381153 7.4817019 0.15009069 34
8.223074 9.1380186 -0.21458085 1
-2.1862292 3.9525716 0.23672865 10.125
8.2821283 9.009902 -0.21361746 1
4.876287 7.4430504 0.15532061 19.333334
5.913528 15.341219 -0.28698736 2
4.6136408 6.3947392 0.13764131 2
3.645335 8.6011829 0.16306531 5.7142859
7.5770264 10.61493 -0.2276492 1
7.7033982 10.479202 -0.22702089 1
4.3528056 8.5943995 -0.16815974 3.6666667
6.8584547 5.7260962 0.1559547 2
5.8562799 8.5464611 0.18084183 5
6.1999044 5.5103393 -0.14478517 1
7.995059 9.528142 -0.21710794 1
9.7704563 6.3621588 -0.20351601 4
5.9139266 4.3075705 -0.12770972 2.2
8.3562298 6.3336744 -0.18302339 1
-3.1617718 3.7265756 0.29325286 11.285714
5.9558225 4.2122617 -0.12733276 2
8.3768253 6.2347989 -0.18227293 1
3.5946198 13.058848 0.23642194 13.333333
8.9658203 7.9127822 -0.20873079 1
4.8781266 7.4427786 -0.1553334 15.2
-8.6062965 5.4165559 0.17750262 5
4.101727 8.8487082 -0.17024241 1.6666666
8.6536026 5.0323443 -0.17473349 1
9.7197218 6.5239964 -0.20433277 1
9.0274391 7.8316035 -0.20860861 1
8.3489447 8.8645897 -0.21255869 1
6.0505395 2.7866993 0.11627666 84.5
4.6355672 7.3761744 -0.15206863 14.833333
4.6155705 7.375339 0.15187083 19.333334
9.9826279 5.6674538 -0.20037109 7
-2.3753455 3.9157205 0.1600875 19.933332
5.3758116 5.3256402 0.13208678 2
8.9114914 3.6067448 -0.16781072 2.6666667
7.4393129 10.731626 -0.22792843 1
3.7423007 8.4969826 0.16206305 2
5.329092 6.8915138 -0.15206282 1
-11.556304 4.5125871 -0.21654947 3
5.6463971 5.5149159 -0.13776931 2
3.8510191 8.3493538 0.16050011 2.8888888
6.578814 5.6305332 0.15114947 2
9.7440996 6.4911394 -0.20436768 4
10.059695 5.3709235 -0.19905715 9.4285717
7.650476 5.9705291 0.16939306 2
7.3689885 5.875351 0.16450638 2
10.417408 4.0093088 0.19483867 24
5.6824026 5.4170036 -0.13703629 1
8.7907591 5.0508265 -0.1769674 1
7.1372089 5.812418 0.16066687 2
5.6460958 3.8633988 0.11941934 7
5.7220311 1.7250272 -0.10431885 27
5.680696 3.6307147 0.11768632 16.545454
5.8904514 5.4408107 -0.13996831 2.25
5.8771176 5.4307275 0.13967742 7.3333335
5.7333946 3.443671 0.11674263 31
9.2570791 3.6166291 -0.17347692 1
9.337594 3.6687677 0.17511745 1
5.7747397 3.3195722 0.11626792 32
-2.313277 4.162395 0.083123319 5.1428571
6.6118426 1.2888025 -0.11758269 1.3333334
8.4311829 8.6170292 -0.21043412 1
5.8462415 3.1228201 0.11570073 61.333332
-1.6228335 3.3881221 0.13127284 31.947369
10.661822 3.0552304 -0.19359373 17.666666
10.648703 3.0333602 0.19326794 33
6.6356168 1.1864961 -0.11766413 2.3333333
5.9584703 2.9125555 0.1157693 9.5714283
6.1458864 4.2826462 -0.13075343 1
5.639843 5.3775411 0.13602406 3
6.7916632 1.0817314 -0.12004463 1.4
10.010098 5.5715942 -0.19996966 9
10.695553 2.8848674 -0.19336684 16.166666
10.751091 2.7624102 -0.19375661 22
7.5713334 1.5720854 0.13497691 4
10.776359 2.5513775 0.19330285 32
10.774113 2.5886362 -0.1934163 23
6.3046784 2.7465196 0.12003766 1
6.2631807 0.87707883 0.11039758 22.181818
10.43702 3.8901806 -0.19442564 14.333333
4.6567369 6.133635 0.13442716 2
4.716218 5.8896441 0.13170584 2
5.9900303 14.915715 -0.28056487 2
5.8016424 1.7053174 -0.10555216 6
7.8466692 6.0143375 0.17256939 2
7.2732697 0.85401624 -0.1278314 1
6.529129 -0.15544066 0.11399913 5
7.2281604 0.96397513 -0.12728621 1
2.9105065 12.904453 -0.23090698 12.333333
6.3818879 2.8313591 -0.1218721 2.1111112
9.8994055 -0.54643238 -0.17305806 1
6.4710131 -0.064683743 0.11295895 5.4000001
6.9875889 -0.21593857 -0.12202723 1.5
10.684926 2.8835876 0.19318318 28.571428
10.740941 2.6820219 0.19324178 29
-4.8488441 2.5922551 0.095983587 27.533333
8.7374048 3.4682059 0.16408752 2
4.223526 7.5758638 0.15139963 12
8.3540363 3.3498375 0.15710656 2
4.3396811 7.3555951 0.14907843 22.444445
11.578846 -1.2875221 -0.20335545 8
8.0166454 6.0783553 0.17560612 1
8.1022511 9.3877764 -0.21645972 1
6.326797 0.37546799 0.11063556 27.181818
9.2355328 1.9664479 -0.16482052 3
9.8111162 6.1484694 -0.20210585 4
7.5997725 -1.1053202 0.13405195 4.5
-1.2138885 3.4921653 0.1232766 31.636364
6.0812569 5.4799466 -0.14288867 4.3333335
7.3841801 -1.1734064 -0.13050909 1.3333334
8.3855486 -0.90288693 0.14721687 2
-2.8550436 3.7950239 0.15192333 18.291666
8.8800316 -0.78463769 0.15560564 2
9.0414591 -0.75128722 0.15836313 2
6.6843038 -0.29885647 0.11679151 127
-1.3741468 3.4497592 0.12973918 31.75
5.1102066 5.3335085 0.12893838 2.4000001
5.8144426 16.154852 -0.29969275 3
6.3736267 4.3591909 -0.13478494 1.75
6.8705559 -0.37810954 0.12010746 3
7.3432016 8.8479776 -0.20070267 1
5.8662758 15.867694 -0.2952947 2.3333333
10.806072 2.4382243 -0.19336393 19.5
7.3828168 -1.1655989 0.13046546 4.5
-5.3647623 2.4309068 0.10280963 23.428572
6.876369 2.9102278 0.13033457 3
7.1074133 2.9643567 0.13441843 2
9.2579861 7.5372052 -0.20838174 1
6.8142262 2.8826473 -0.12914781 1
5.93717 15.638312 -0.29197878 2
5.6084847 7.0522346 -0.1572811 2.5
7.1644239 -1.2276894 0.12687899 4
7.033751 -1.2554352 0.1247149 4
6.4328785 2.762454 0.12220175 2
6.1184888 5.5157542 0.14379036 4.5
6.1200428 2.7290757 0.11696603 5
6.357058 5.5799923 0.14764735 5.3333335
9.2520666 2.0037467 -0.16523938 1
11.48082 -0.97617984 -0.20112152 14
10.369164 4.3438988 -0.19623485 1
9.2501707 1.9358339 -0.16496015 1
6.4851389 -1.7025366 0.11703584 20.6
6.8013282 1.3750926 -0.12111971 3
7.0747414 1.0269169 -0.12478471 2
6.4772243 -1.8564291 0.11761614 5.25
6.5037732 -1.9747576 0.11864146 1
7.6353211 -3.3953538 -0.14586022 14.6
4.2228675 7.6026015 -0.15180102 6
6.5142212 -2.1534584 0.1197654 95.599998
10.434707 3.891021 0.19439189 32
6.9926424 1.4277544 0.12457528 8
6.5387907 1.3113259 0.11640756 3
10.121947 5.1152782 -0.19796263 11.333333
6.5566669 -2.3716915 0.12170921 115.77778
6.3746305 1.1602279 0.11310323 27.166666
7.3323469 0.63868463 -0.12847765 1
7.3884177 0.38633487 -0.12914781 1
5.6746745 1.8735846 0.10431976 55.846153
11.946338 -7.1046438 -0.24261637 2
8.6373138 -0.83910435 0.15147527 2
7.37849 0.16853328 -0.12882867 2.4285715
9.9254961 -0.58099133 0.17354673 6
10.795334 2.4367864 0.19317488 32.333332
9.6348858 -0.61531842 0.16852042 3
5.6385317 2.0366712 0.10464463 17
6.6514983 -2.6384671 0.12490688 29
8.5049839 8.5138969 -0.21005715 1
5.7151618 1.7131487 0.10414433 45.333332
6.9919062 -0.26493913 -0.12213194 3
7.0232658 -0.32757923 -0.12272532 1
6.7377973 -2.7592516 0.12708843 2
7.834959 -1.0926604 -0.13808344 4
4.3553171 7.3497052 -0.14912887 17.222221
7.616827 -1.1295853 -0.13440681 3.6666667
9.1496649 7.6638837 -0.20833521 1
8.901515 -6.4459248 0.19183685 1
10.15836 4.8708277 -0.1966479 6.1666665
5.6338782 4.1351209 0.12199233 52.75
4.7589374 5.7771664 0.13064872 2
4.264245 7.5557122 -0.15144035 23
8.5271091 -0.99265343 -0.14984636 1
7.0805473 -0.095981784 -0.12360667 1.875
6.4818387 -2.018868 0.11850184 7
8.0072327 -5.6925478 0.17148735 2
6.3950257 0.12460581 0.11165469 22.833334
8.1856546 -5.862515 0.17574574 1
8.1402597 -0.96039468 0.14307483 2
4.8377056 5.6271367 0.1295381 2.5454545
7.9825654 -0.9985258 0.14042206 4
7.7837629 -3.3642688 0.14801386 15
6.6874061 -1.4470377 0.11943264 1
11.823781 -8.1333895 -0.2505002 2
7.6098962 -3.3983693 0.14547627 17.6
7.1919341 -1.221099 -0.12733276 18
9.1907988 -0.7151674 0.16091119 2
8.3327513 1.7605405 0.1486596 4
7.3682137 -3.461076 0.14209752 19
8.9091587 1.9148374 0.15906124 6
7.0919847 -3.5925217 -0.13877456 16.700001
6.8571815 -1.3320928 -0.12193561 1.75
6.473619 -1.8807602 -0.11767111 1
-2.6240118 3.8568654 0.16295348 23.166666
9.3586245 7.3801126 -0.20804265 1.2857143
11.433172 -10.539148 -0.27141982 2
3.9637113 9.5787086 -0.18094654 1
8.4582672 -8.0406361 0.20370449 1
6.484467 1.2769039 0.1153604 5
7.1927619 0.040751915 -0.12555261 2.3333333
6.6447916 -1.4511938 -0.11872 1.5
4.9494157 5.4440246 0.12842877 2
3.9665899 9.3997469 -0.17808436 1
6.5412526 -1.57153 0.11742976 10.714286
6.8680396 -1.3239137 0.12209205 1.7142857
7.7414851 -5.3046751 0.16380829 102
8.3724375 -1.0337476 -0.14725177 3.6666667
7.2904706 -1.2501121 0.1291129 2
8.0961475 -1.071502 -0.14255127 4
5.6811352 1.8748168 -0.10443229 29.333334
10.358772 -12.303487 -0.28073943 2
8.4705315 -5.6556029 -0.17778187 1
6.8197432 -2.8642654 0.1291129 2
11.787537 -9.177556 -0.26076221 2
9.1449242 -6.7162418 0.1980499 1
11.77784 -9.3367081 -0.2623446 2
10.130371 -12.329377 -0.2785404 2
5.671731 2.0151505 -0.10506349 43
6.1824393 1.8067027 0.1124284 5
10.786761 -12.589698 -0.28938416 2
7.6502018 -4.6206818 0.15600707 2
11.723123 -9.5873938 -0.26434579 2
7.9420958 -5.6046076 0.1696723 2
8.6519127 -6.5918775 -0.18985891 1
7.9477801 7.8718228 -0.19525751 1
6.7552309 -2.4707451 -0.12555261 1
7.0981717 -3.8156586 0.1406664 19.333334
6.7051024 -2.3473885 -0.12400516 1.1666666
10.381256 4.0141277 -0.19428019 14
8.2767935 -6.7922339 0.18689202 1
-4.8616862 3.3621233 -0.10317863 1.1666666
6.6923547 -2.6258311 -0.12549444 1
8.8738804 -6.449676 -0.19148779 1
8.2031012 -7.1232238 0.18963784 1.4
10.374222 -12.232862 0.27997148 2
10.728541 2.6968195 -0.19309342 15
9.3980513 -7.964221 -0.21502762 1
9.3810749 -0.66413176 0.16415735 2
7.3925552 -3.457824 -0.14245819 14.833333
4.6366401 6.64255 0.1413994 2
8.6302042 -9.0696545 0.21853322 14
10.125609 -12.319148 0.27834845 2
8.5100965 -9.3920078 0.22122671 4
9.9022493 -12.352432 0.27634141 2.6666667
8.5619669 -5.5664325 -0.17825888 1
8.9619389 -8.9760065 0.22140121 13
9.6387911 -12.460648 0.2749801 35
8.484972 -5.7512403 -0.17892207 1
9.520112 -12.665977 0.27657411 2
8.9168653 -5.4727135 -0.182622 1
8.2668324 -7.6954694 0.19714238 67
10.006107 -9.578764 0.24178565 2
8.2372665 -7.5905247 0.19551931 75
11.984293 -6.9303303 -0.24164602 2
8.4697113 -9.1497049 0.21763152 11
10.528408 -13.185707 -0.29452682 2
10.128546 -9.5644655 -0.24316439 2
8.4957438 -9.2779779 0.21958618 7
7.6443782 -4.8560534 0.1580839 36
6.7674885 -2.6113772 -0.12661721 1
10.401297 -13.403689 -0.29614642 2.2
9.9660702 -9.5771723 -0.24126206 2
7.0785303 1.4568763 -0.12614599 1
10.289022 -13.594753 -0.29759842 3
9.7860737 -13.548855 0.29173443 2
9.1244898 -8.9460964 0.22305048 12.5
11.534163 -1.1229292 -0.20228504 17.166666
10.208244 -13.685461 -0.29801729 3
8.8468494 -9.0129919 0.22044718 13
10.130244 -13.87709 -0.29990217 3
10.272415 -9.532362 -0.24461293 2
8.6251965 -9.0672436 -0.21844129 13.6
6.1517339 -15.593099 -0.29259542 16.666666
9.081131 -6.3869653 -0.19379151 1
6.0400944 -15.628895 -0.29246745 17
7.6970863 -4.3614283 0.15442762 2.5
8.799243 -5.5481515 -0.18157482 1.5
8.4531221 5.075191 -0.172104 1.3333334
6.8322244 -2.8707616 -0.12935723 1
4.1178727 9.1315641 -0.17484985 1
10.59884 -12.153896 0.28148407 2
9.687582 -0.653566 -0.16948381 2.8
10.303379 -12.276902 0.27976209 2
12.056763 -6.6694751 -0.2405058 2
9.9582129 -9.5997543 0.24143659 2
11.737489 -9.4321423 -0.26283324 2
4.3728333 -16.057894 -0.29050112 17
8.5152292 -9.400876 -0.22140123 5
7.8418427 -1.0369025 0.13807179 4
8.6795464 -6.4922051 0.18919571 1
8.6748362 -6.4907598 -0.18911427 1
0.86112595 -3.5649109 -0.064015426 1
0.84628898 -3.5828466 0.06425976 7
6.0968409 -15.60724 0.29247615 15.5
0.62284255 -2.6999841 -0.096639477 25.5
5.8669081 -15.658294 0.29187405 15.5
0.29117003 -2.5096416 -0.15594527 45.157894
5.6320467 6.9763908 -0.15650621 3
9.518877 -12.849946 0.2791338 2
9.5947094 -13.042521 0.28262427 2
8.2866049 -7.7680426 0.19825934 48
8.2011805 -6.8993397 0.18707235 2
-0.70769018 -2.7576134 -0.17910209 35.599998
-0.71930605 -2.7578135 0.13402972 35.23077
-0.87360692 -2.7897811 0.10087702 30.209303
-0.87268859 -2.797132 -0.10241526 40.023811
10.175647 4.7276998 -0.19585089 1
4.3853717 -16.05595 0.29052439 13
6.5606413 -1.6158561 -0.11794654 1
-1.4740231 -3.1063876 -0.1203674 20.5
6.4993315 -1.7196246 -0.11734998 1
-1.6272789 -3.203326 -0.1233215 20.586206
-1.6220195 -3.1986394 0.12524104 19.533333
-1.7779315 -3.2429309 -0.11982448 20.285715
-1.7734509 -3.235543 0.13814326 20.714285
-1.9029377 -3.2776711 -0.13835837 19.363636
-1.9048752 -3.2722945 0.12941884 21.434782
6.2788873 0.62503368 0.11014795 11.583333
4.2091599 -16.078621 -0.29011133 19
-3.1299992 -3.369977 -0.1608059 29.444445
8.8363142 -9.0157623 -0.22035408 12.666667
9.1190109 -8.9434605 -0.22295101 6.8000002
8.9193344 -8.9957581 -0.221122 11
-3.6967134 -3.5132587 -0.089018911 20
-3.6936197 -3.51121 0.088954918 34.5
-2.1268106 -3.3333259 -0.13814069 18.538462
-5.5484538 -4.0016718 -0.11940937 13
8.476635 -9.1605101 -0.21785258 8.666667
7.1039553 -3.8196213 -0.14078856 13.5
9.077631 -13.342297 -0.28168187 2
-5.8012795 -4.063611 -0.12363284 12
-5.874536 -4.0844297 -0.12488942 11
-5.9463615 -4.103652 -0.12611109 13
-6.0249906 -4.1269436 -0.12747237 15
9.7030907 -10.898167 0.25470042 2
-6.0740876 -4.1294971 -0.12820537 12
-6.1580858 -4.1552463 -0.12967138 15
-6.2207379 -4.1659927 -0.13068362 13
6.7454309 -2.7775118 -0.12733276 1
-4.968698 -4.1203985 -0.11267623 30.700001
-4.9628601 -4.1311817 0.11271812 49.599998
0.69017434 -2.9705482 0.10663658 13.5
-5.6420283 -4.0267081 0.12099171 17
-5.6707101 -4.0312462 -0.12144548 11.666667
-3.3476815 -3.4253128 0.1287459 34.81818
-6.6363091 -4.2787561 -0.13782747 13.333333
-6.5981021 -4.2715626 0.13719918 17.333334
-2.3672156 -3.3523302 0.14334296 33.900002
9.5387878 -7.9136314 -0.21634004 1
-6.3883433 -4.214819 -0.13359235 13.333333
-2.7038956 -3.2608879 0.15857089 36.142857
0.74193442 -3.1657648 -0.11295266 14
-7.1229482 -4.402575 -0.14616391 14.5
5.6978436 -15.705849 -0.29162973 14
-2.5818563 -3.2325025 0.14453669 36.214287
-7.360064 -4.4601054 -0.15021868 13
1.5149221 -6.2191749 0.11173031 1
9.7331009 -13.327858 0.28806943 2
-6.1244607 -4.1489897 0.12912454 17.333334
-14.799685 -7.5570922 -0.290059 2
6.6615777 -2.1385581 -0.12212806 1
-8.7439137 -4.7199316 0.17344202 12
-8.7704706 -4.6339712 0.17314532 13.5
-1.1171491 -2.8568738 -0.10862692 38.794872
-9.6094542 -5.0343857 -0.18935861 9
7.0069456 -3.0017328 -0.13305715 1
-14.761517 -7.1901073 0.28660342 100
-2.123461 -3.327069 0.13782768 21.625
-4.9025311 -4.3772078 0.11472515 49.900002
-2.4519582 -3.2163076 0.14124875 36.916668
-7.3676353 -4.4662991 0.15038739 15
8.2127123 -7.4019718 0.19298871 62.333332
1.0024663 -4.1787844 0.075010449 5
1.7164078 -6.5518737 0.1182226 1
-5.3547239 -3.948235 0.11612833 19.5
-4.9953895 -3.9992013 0.1116954 54
-5.8728886 -4.0840802 0.12486325 19.5
-8.4091368 -4.724659 -0.16836336 12
1.6023865 -6.338551 0.11412129 1
-8.6545677 -4.7833562 -0.17260429 8.5
-0.37363699 -2.6704962 -0.14159958 46.192307
-8.8734303 -4.8459916 -0.17647873 11
10.894613 -12.369043 -0.28771341 2
-1.1229047 -2.8556709 0.1084865 30.820513
-2.8743024 -3.3068671 -0.15320286 31.15
0.60050827 -2.6261663 0.094039842 19
7.2338896 -3.492327 -0.14021264 16
0.52726912 -2.4396276 0.13088743 40.666668
10.981738 -12.209305 -0.28663835 2
7.2139997 -3.4967084 0.13993341 20
-14.956002 -5.0623398 -0.27560839 14.666667
7.6864724 -5.1305108 0.1613126 99.166664
-14.984455 -4.9266357 -0.27532917 17
-7.8920374 -4.5996313 0.1594452 16
10.556508 -12.316547 0.28314784 2
-15.017534 -4.8215904 -0.27531171 13.5
0.39497632 -2.4704554 0.13128839 39.826668
7.0767889 -3.5990396 0.13858955 26
0.12421644 -2.5489318 -0.13292997 42.797619
-15.353593 -5.7343702 -0.28607982 2
-5.3781018 -3.9510496 -0.11648609 10.75
0.22587222 -2.4963584 -0.13136327 39
9.7016964 -0.77377391 -0.16988173 3.5
-9.0874109 -4.6421289 0.17811926 1
-15.133875 -5.8973112 0.28351432 52.5
8.6029062 -6.5758843 0.18900955 1.6666666
11.473396 -10.465658 -0.27107078 2
-9.6711178 -4.8123789 -0.18855581 2
-9.3754416 -4.9722672 -0.18523984 9
-9.0677137 -4.89254 -0.17984706 8.5
-8.1658354 -4.6632566 -0.1641399 13
-7.8832889 -4.5934124 -0.15925904 9.666667
-7.6148005 -4.526619 -0.15462834 13
-6.8998733 -4.3476663 -0.14235348 13.666667
-4.8564382 -4.5208116 -0.11581417 26.666666
-4.9056101 -4.3635345 -0.11460648 28.799999
-5.0732822 -3.9034975 -0.11173806 20.333334
-4.9999323 -3.9871094 -0.1116256 25
8.4981308 -9.316431 -0.22010975 7
1.5830998 -6.4062786 -0.11518589 1
-3.5790005 -3.4839344 -0.087183498 21.25
-3.3658814 -3.4298787 -0.1170645 26.6
-2.6896505 -3.2604253 -0.15587369 31
-2.3680243 -3.3547537 -0.14343752 28.392857
-2.5706213 -3.2289717 -0.1440752 30.583334
9.1334648 -8.0729361 -0.21277975 1
-9.5353518 -4.7666235 0.18607756 3
-2.4469321 -3.2161486 -0.13574268 30.615385
1.0735962 -4.437716 -0.23928 4
-9.3222466 -4.7008405 0.18223803 1
-8.6723824 -4.7757816 0.17281373 14
-14.788959 -6.8240647 0.2842997 2
5.7063661 -15.72081 0.29192638 14
-14.701202 -6.9084592 0.28353179 2
-1.312341 -2.9086576 -0.1115183 35.900002
-8.3525715 -4.7130394 0.16740349 14
-14.842521 -6.6415558 0.28383431 2
-8.1065626 -4.6500731 0.16312763 16
-14.91583 -6.3868937 0.28322464 2
-7.6157875 -4.5288262 0.15466322 15.333333
-15.044993 -6.0114746 0.2827988 9
-0.60671008 -2.7278154 -0.13642369 39.137932
-14.958918 -6.1595674 0.28237993 2
-0.12274509 -2.6111717 -0.13729295 41.543209
-7.1222134 -4.4030862 0.14615808 16.666666
-6.8557277 -4.337677 0.14160883 17.333334
0.3987641 -2.475255 -0.12650804 43.710144
0.53089106 -2.451308 -0.13159217 45.190475
-6.3527188 -4.2082715 0.13301061 17.333334
-4.8694296 -4.5186229 0.1159538 54
-14.959898 -5.0665512 0.27569568 18.5
-15.008244 -4.8504348 0.27531171 20
12.015082 -6.8107567 -0.24107592 2
-14.991539 -4.9594355 0.27562585 19
-5.5139227 -3.9914165 0.11881598 18
-5.0605059 -3.9091568 0.11162171 40.777779
-3.5775006 -3.483294 0.087157317 37.599998
-3.1162786 -3.3657508 0.16017789 36.777779
-2.8647563 -3.301091 0.14874774 34.526318
5.8669419 -15.665037 -0.29198575 20
-15.831198 -5.8498569 -0.29459664 2
6.5151401 -1.8384961 -0.11817025 1
-15.32226 -5.7836895 -0.28587043 2
-1.3172538 -2.9046817 0.11141362 29.549999
8.3579817 -6.6066346 0.18596703 5.3333335
-0.59532642 -2.721247 0.14437594 38.892857
-0.37424964 -2.6667607 0.14129101 41.746666
-0.12364169 -2.6040363 0.13677007 41.964287
0.12652691 -2.5398428 0.13344313 39.785713
-15.911679 -4.2962794 -0.28768548 2
0.27456409 -2.5057802 0.13222359 39.599998
-15.642177 -4.0482569 -0.28203088 2
-15.618776 -3.8958426 -0.28098375 2
-15.530574 -3.6723197 -0.27856368 3
-15.558781 -3.3127961 -0.27766779 114.5
-15.608204 -3.1528292 -0.27794701 108.5
-15.86236 -2.9456429 -0.28161204 2
